ply
format ascii 1.0
element vertex 954
comment This is a file taken from
comment http://mesh.brown.edu/ssd/software.html
property float x
property float y
property float z
property float nx
property float ny
property float nz
end_header
2.2477 10.458 -1.3188 -0.14184 0.0073022 -0.98986 
2.267 10.608 -1.3329 -0.26088 -0.015417 -0.96525 
2.2803 10.727 -1.3236 -0.32197 0.20007 -0.92537 
2.2887 10.82 -1.2951 -0.38457 0.29504 -0.87468 
2.296 10.908 -1.2625 -0.45335 0.41628 -0.78815 
2.3008 10.983 -1.2199 -0.57552 0.47706 -0.66422 
2.3035 11.047 -1.169 -0.59347 0.7358 -0.32617 
2.2933 11.045 -1.0661 -0.5467 0.83226 -0.091985 
2.2875 11.066 -0.98118 -0.44052 0.40397 -0.80172 
2.3034 11.198 -0.98405 -0.25327 -0.010453 -0.96734 
2.3215 11.341 -0.99699 -0.19695 -0.045658 -0.97935 
2.3384 11.477 -1.005 -0.23748 0.014123 -0.97129 
2.3532 11.602 -1.005 -0.2397 0.057457 -0.96915 
2.3664 11.72 -0.99896 -0.14355 0.046734 -0.98854 
2.3797 11.837 -0.99321 -0.20521 0.13434 -0.96945 
2.3884 11.931 -0.96936 -0.33268 0.14558 -0.93174 
2.4017 12.049 -0.96493 -0.43928 0.19862 -0.87612 
2.4086 12.134 -0.93394 -0.49885 0.46096 -0.73394 
2.4128 12.205 -0.89215 -0.56684 0.72274 -0.39539 
2.4009 12.196 -0.78275 -0.53912 0.84086 -0.048009 
2.3931 12.208 -0.691 -0.56122 0.81473 -0.14579 
2.3861 12.224 -0.60215 -0.64079 0.5136 -0.57061 
2.3969 12.328 -0.58841 -0.48386 0.11698 -0.86729 
2.4076 12.432 -0.57419 -0.39658 0.13949 -0.90734 
2.4207 12.548 -0.57112 -0.38292 0.061389 -0.92174 
2.4349 12.669 -0.57257 -0.80919 0.38559 -0.44332 
2.4361 12.726 -0.51945 -0.79577 0.19813 -0.57228 
2.0412 7.2079 -2.4599 -0.33518 -0.16395 -0.92778 
2.0765 7.4536 -2.5188 -0.40147 -0.093662 -0.91107 
2.0975 7.6195 -2.5268 -0.56502 0.046296 -0.82378 
2.1143 7.7613 -2.5198 -0.65144 0.18016 -0.737 
2.1261 7.8758 -2.4954 -0.66125 0.20762 -0.72086 
2.1382 7.9918 -2.4723 -0.65977 0.23695 -0.71313 
2.1477 8.093 -2.4399 -0.68087 0.33112 -0.65328 
2.1546 8.1804 -2.3985 -0.70335 0.30116 -0.6439 
2.1652 8.2878 -2.3709 -0.72142 0.42919 -0.54345 
2.1643 8.3321 -2.3009 -0.72798 0.54512 -0.4158 
2.1634 8.3763 -2.2308 -0.74203 0.56645 -0.35851 
2.161 8.4122 -2.155 -0.73745 0.67539 -0.00368 
2.1408 8.3513 -2.0126 -0.64567 0.72617 0.2362 
2.119 8.282 -1.8636 -0.74854 0.59439 -0.29391 
2.1333 8.4102 -1.8509 -0.58922 0.16328 -0.7913 
2.1504 8.5529 -1.849 -0.51391 0.17242 -0.84034 
2.1616 8.664 -1.8255 -0.49554 0.16189 -0.85337 
2.1733 8.7773 -1.8039 -0.51382 0.27467 -0.81274 
2.1804 8.8658 -1.7652 -0.55056 0.31581 -0.77276 
2.189 8.9625 -1.7327 -0.63373 0.32615 -0.70143 
2.199 9.0661 -1.7054 -0.63279 0.28344 -0.72058 
2.203 9.138 -1.6557 -0.40906 0.231 -0.88278 
2.2236 9.2984 -1.6701 -0.36789 0.10105 -0.92436 
2.2344 9.4064 -1.6472 -0.50058 0.29082 -0.81538 
2.2386 9.479 -1.5989 -0.59265 0.33419 -0.73286 
2.2484 9.5817 -1.5729 -0.64379 0.37409 -0.66753 
2.2509 9.6454 -1.5185 -0.65511 0.53602 -0.53246 
2.2531 9.7072 -1.4628 -0.70267 0.64315 -0.30433 
2.2428 9.7029 -1.358 -0.68529 0.72787 -0.024163 
2.2337 9.7046 -1.2574 -0.5958 0.32989 -0.73225 
2.2546 9.8662 -1.2764 -0.3282 -0.037337 -0.94387 
2.277 10.035 -1.3019 -0.19902 -0.13329 -0.97089 
2.2986 10.2 -1.3249 -0.17207 -0.080801 -0.98177 
2.3172 10.348 -1.3361 -0.21355 0.0082716 -0.9769 
2.3303 10.467 -1.3258 -0.21139 -0.035697 -0.97675 
2.3534 10.639 -1.3565 -0.2515 -0.030413 -0.96738 
2.3665 10.758 -1.3474 -0.32562 0.15779 -0.93224 
2.3773 10.865 -1.3292 -0.43796 0.23212 -0.86851 
2.3856 10.958 -1.301 -0.47303 0.35753 -0.80524 
2.3933 11.048 -1.2708 -0.48201 0.50561 -0.71556 
2.3917 11.09 -1.2027 -0.44158 0.8228 -0.35777 
2.386 11.111 -1.1177 -0.5093 0.84978 -0.13594 
2.3748 11.103 -1.0102 -0.57022 0.53268 -0.62538 
2.3883 11.223 -1.0043 -0.22888 0.095874 -0.96872 
2.4037 11.354 -1.007 -0.074041 -0.048923 -0.99605 
2.4224 11.5 -1.0237 -0.083118 -0.0067178 -0.99652 
2.432 11.601 -1.0033 -0.093855 0.08478 -0.99197 
2.4465 11.725 -1.0032 -0.15083 0.0083521 -0.98852 
2.463 11.86 -1.0122 -0.25997 0.032692 -0.96506 
2.4758 11.976 -1.0061 -0.3495 0.069121 -0.93438 
2.4901 12.099 -1.0065 -0.38331 0.23441 -0.89338 
2.4926 12.162 -0.95746 -0.41604 0.46465 -0.78167 
2.4988 12.244 -0.92472 -0.52471 0.62744 -0.57533 
2.4915 12.258 -0.83453 -0.56775 0.82176 -0.048742 
2.4803 12.252 -0.72759 -0.57112 0.81176 -0.12191 
2.4735 12.268 -0.63914 -0.59165 0.53578 -0.6024 
2.4839 12.371 -0.6244 -0.49472 0.19679 -0.84648 
2.4935 12.47 -0.60683 -0.41051 0.16292 -0.89718 
2.5053 12.581 -0.59879 -0.26417 0.12626 -0.95618 
2.5162 12.686 -0.58722 -0.3399 0.1028 -0.93483 
2.5332 12.822 -0.60214 -0.43439 -0.029689 -0.90023 
2.5488 12.951 -0.61196 -0.39919 -0.01229 -0.91678 
2.1364 7.2649 -2.4965 -0.27037 -0.19663 -0.94246 
2.1727 7.5191 -2.5612 -0.35848 -0.12844 -0.92466 
2.201 7.7278 -2.5975 -0.52403 -0.00162 -0.8517 
2.2136 7.8475 -2.5763 -0.65443 0.19099 -0.73161 
2.2264 7.9683 -2.5563 -0.69083 0.18615 -0.69865 
2.2376 8.0802 -2.5308 -0.69315 0.30058 -0.65513 
2.2464 8.1785 -2.4967 -0.67064 0.30689 -0.67532 
2.2547 8.2734 -2.4607 -0.66303 0.3581 -0.65739 
2.259 8.3467 -2.4104 -0.65873 0.49091 -0.57016 
2.2627 8.4161 -2.3576 -0.7031 0.52093 -0.48403 
2.2629 8.4663 -2.2919 -0.74265 0.53084 -0.40827 
2.2629 8.5156 -2.2256 -0.70201 0.70171 -0.12159 
2.2495 8.4906 -2.1082 -0.6415 0.73854 0.20744 
2.2237 8.3968 -1.9428 -0.74066 0.6678 -0.073907 
2.229 8.4761 -1.8966 -0.43686 0.30856 -0.84495 
2.2379 8.5752 -1.8643 -0.47409 0.12157 -0.87204 
2.2553 8.721 -1.8652 -0.55433 0.15854 -0.81706 
2.2668 8.8344 -1.8439 -0.58313 0.22966 -0.77924 
2.2778 8.9445 -1.8208 -0.61923 0.26309 -0.73982 
2.287 9.0452 -1.7913 -0.62316 0.27601 -0.73177 
2.295 9.1388 -1.7572 -0.6445 0.45264 -0.61623 
2.2933 9.1794 -1.6853 -0.56885 0.2699 -0.7769 
2.3117 9.3297 -1.6925 -0.43671 0.10376 -0.8936 
2.3264 9.4598 -1.6857 -0.50921 0.18292 -0.84098 
2.338 9.5729 -1.6672 -0.60425 0.24463 -0.75831 
2.3447 9.6592 -1.6294 -0.65326 0.41648 -0.63229 
2.347 9.7217 -1.5745 -0.66554 0.51908 -0.53629 
2.3491 9.783 -1.5186 -0.67822 0.61924 -0.39568 
2.3437 9.8044 -1.4333 -0.66328 0.7448 -0.073041 
2.3329 9.796 -1.3254 -0.68949 0.53713 -0.4859 
2.3409 9.8896 -1.2937 -0.30203 0.092359 -0.94881 
2.3625 10.057 -1.3177 -0.16885 -0.11865 -0.97847 
2.3854 10.23 -1.3471 -0.10521 -0.087132 -0.99063 
2.403 10.374 -1.3557 -0.12408 -0.016195 -0.99214 
2.4183 10.506 -1.3556 -0.21861 -0.071767 -0.97317 
2.4387 10.665 -1.3763 -0.16207 -0.0011473 -0.98678 
2.4525 10.788 -1.3707 -0.21824 0.0712 -0.97329 
2.4657 10.909 -1.3633 -0.25799 0.26237 -0.92984 
2.4698 10.981 -1.3186 -0.28823 0.37157 -0.88253 
2.477 11.069 -1.2869 -0.41614 0.49059 -0.76561 
2.479 11.13 -1.2336 -0.47368 0.79805 -0.37248 
2.47 11.132 -1.1347 -0.4304 0.8728 -0.23016 
2.4675 11.17 -1.0631 -0.44071 0.70816 -0.55161 
2.4684 11.225 -1.0055 -0.087053 0.22456 -0.97056 
2.4832 11.353 -1.0064 -0.076117 -0.061856 -0.99518 
2.5024 11.504 -1.0266 -0.1184 -0.023514 -0.99269 
2.5157 11.624 -1.0221 -0.24454 0.035242 -0.969 
2.5288 11.743 -1.0172 -0.21068 0.010887 -0.97749 
2.5466 11.886 -1.033 -0.20918 -0.013489 -0.97778 
2.5591 12.001 -1.0262 -0.26998 0.040843 -0.962 
2.573 12.123 -1.0259 -0.33683 0.24909 -0.90802 
2.5775 12.197 -0.98622 -0.42876 0.38854 -0.8156 
2.5835 12.278 -0.95244 -0.48612 0.55166 -0.67776 
2.5824 12.323 -0.88891 -0.51738 0.83925 -0.16725 
2.5706 12.313 -0.77885 -0.48255 0.87519 -0.034522 
2.5643 12.331 -0.69243 -0.52968 0.59915 -0.60038 
2.5719 12.42 -0.6661 -0.34996 0.27144 -0.89657 
2.5786 12.505 -0.63642 -0.30504 0.27091 -0.91299 
2.5856 12.592 -0.60825 -0.26674 0.1656 -0.94943 
2.5988 12.71 -0.60795 -0.24217 -0.0093868 -0.97019 
2.6147 12.842 -0.61944 -0.26308 -0.082797 -0.96122 
2.6322 12.981 -0.63829 -0.2942 -0.013432 -0.95565 
2.6441 13.092 -0.63305 -0.20598 0.11993 -0.97118 
2.2686 7.5848 -2.6038 -0.35271 -0.16514 -0.92105 
2.3029 7.8303 -2.6643 -0.49237 -0.036369 -0.86963 
2.3171 7.9606 -2.6504 -0.64745 0.11836 -0.75286 
2.3341 8.1059 -2.647 -0.68731 0.26874 -0.67482 
2.3358 8.1643 -2.5865 -0.68843 0.34603 -0.63744 
2.3454 8.2678 -2.5561 -0.67882 0.33879 -0.65148 
2.3513 8.3501 -2.5119 -0.65496 0.429 -0.62208 
2.3559 8.4248 -2.4628 -0.67851 0.43718 -0.59034 
2.3589 8.4909 -2.408 -0.71725 0.44248 -0.53829 
2.3648 8.5729 -2.3643 -0.75911 0.4951 -0.42265 
2.3601 8.5956 -2.2801 -0.74524 0.6583 -0.10608 
2.3461 8.5656 -2.1595 -0.63716 0.75395 0.15995 
2.3314 8.5321 -2.036 -0.64014 0.7542 0.14628 
2.3188 8.5113 -1.9208 -0.67339 0.37967 -0.63435 
2.3421 8.6916 -1.9454 -0.54273 0.061228 -0.83767 
2.3521 8.7973 -1.9185 -0.54559 0.21721 -0.80941 
2.3644 8.9162 -1.9014 -0.53238 0.23725 -0.81258 
2.3728 9.0124 -1.8686 -0.52055 0.28223 -0.80583 
2.383 9.1191 -1.8438 -0.54467 0.27114 -0.79361 
2.3912 9.2148 -1.8114 -0.6591 0.39413 -0.6405 
2.3939 9.2793 -1.7568 -0.65845 0.30729 -0.68703 
2.4037 9.3838 -1.7313 -0.46717 0.21061 -0.85872 
2.418 9.5124 -1.7237 -0.42067 0.11836 -0.89946 
2.4304 9.631 -1.7093 -0.50237 0.23763 -0.83136 
2.4386 9.7261 -1.6783 -0.5662 0.45155 -0.68958 
2.4395 9.7808 -1.6178 -0.63574 0.48127 -0.6035 
2.4439 9.8551 -1.5718 -0.68198 0.59253 -0.42874 
2.438 9.8728 -1.4839 -0.6361 0.76856 -0.068544 
2.4269 9.8621 -1.3746 -0.6258 0.71624 -0.30883 
2.4287 9.9223 -1.3181 -0.40827 0.22577 -0.8845 
2.4475 10.075 -1.3317 -0.16423 -0.053632 -0.98496 
2.4645 10.218 -1.3384 -0.070808 -0.065797 -0.99532 
2.4844 10.377 -1.3577 -0.19313 -0.097475 -0.97632 
2.5047 10.537 -1.3791 -0.24532 -0.046056 -0.96835 
2.5186 10.663 -1.3744 -0.075042 0.052761 -0.99578 
2.5356 10.805 -1.3831 -0.1195 0.011291 -0.99277 
2.5461 10.912 -1.3654 -0.16803 0.25194 -0.95304 
2.556 11.015 -1.3452 -0.31283 0.23675 -0.91983 
2.5644 11.11 -1.3189 -0.37097 0.49473 -0.78589 
2.5639 11.158 -1.2557 -0.48275 0.73217 -0.4805 
2.5591 11.182 -1.1738 -0.51928 0.83964 -0.15924 
2.5529 11.199 -1.0863 -0.45798 0.80594 -0.37512 
2.5514 11.242 -1.0186 -0.30859 0.34748 -0.88546 
2.5658 11.369 -1.0192 -0.20027 -0.039736 -0.97893 
2.5844 11.519 -1.0381 -0.1727 -0.058148 -0.98326 
2.6016 11.66 -1.0514 -0.22465 0.027104 -0.97406 
2.6109 11.76 -1.0311 -0.21089 0.024032 -0.97721 
2.629 11.906 -1.0493 -0.2232 -0.039858 -0.97396 
2.6442 12.036 -1.0552 -0.27609 0.024774 -0.96081 
2.6561 12.149 -1.0474 -0.36864 0.20294 -0.90715 
2.6629 12.235 -1.0175 -0.4542 0.34358 -0.82199 
2.6695 12.32 -0.98717 -0.43512 0.59258 -0.67788 
2.667 12.358 -0.9176 -0.43477 0.86357 -0.25537 
2.6571 12.356 -0.81491 -0.41156 0.90985 0.052785 
2.6437 12.337 -0.69714 -0.37025 0.75791 -0.53712 
2.6531 12.436 -0.67945 -0.28739 0.26894 -0.91928 
2.6613 12.53 -0.65686 -0.31036 0.2455 -0.91837 
2.6698 12.624 -0.63578 -0.28742 0.16194 -0.94402 
2.681 12.733 -0.62731 -0.27553 -0.038892 -0.9605 
2.7003 12.884 -0.65533 -0.29443 -0.084941 -0.95189 
2.7141 13.005 -0.65911 -0.29108 0.067359 -0.95432 
2.7225 13.099 -0.63933 -0.36153 0.16739 -0.91721 
2.7325 13.201 -0.62696 -0.59121 0.51866 -0.61762 
2.7159 13.167 -0.49432 -0.71622 0.69179 0.0919 
2.3675 7.6707 -2.6595 -0.34651 -0.17048 -0.92242 
2.3997 7.9066 -2.7141 -0.44895 -0.074414 -0.89045 
2.4187 8.0656 -2.7193 -0.58757 0.12832 -0.79894 
2.4272 8.1634 -2.6848 -0.62362 0.33951 -0.70415 
2.4375 8.2721 -2.6578 -0.64392 0.32408 -0.69306 
2.4418 8.3453 -2.6077 -0.65351 0.41118 -0.6355 
2.4462 8.419 -2.558 -0.64028 0.44301 -0.62751 
2.4537 8.511 -2.5208 -0.65558 0.3875 -0.64811 
2.4575 8.5819 -2.4695 -0.70723 0.38718 -0.59154 
2.4625 8.6589 -2.4227 -0.69995 0.53066 -0.47799 
2.4612 8.7007 -2.3518 -0.71789 0.64781 -0.25492 
2.4538 8.7074 -2.2568 -0.67908 0.71734 0.15579 
2.4292 8.6157 -2.0936 -0.59387 0.76665 0.24405 
2.4163 8.5913 -1.9761 -0.63085 0.48622 -0.60466 
2.4345 8.7446 -1.9822 -0.37866 0.12959 -0.91642 
2.4446 8.8517 -1.9565 -0.46465 0.18979 -0.86492 
2.4547 8.9589 -1.9313 -0.52526 0.26889 -0.80734 
2.4632 9.0567 -1.8998 -0.54396 0.25063 -0.80081 
2.4741 9.1682 -1.8785 -0.55151 0.21789 -0.80521 
2.4863 9.2868 -1.8626 -0.61131 0.33067 -0.719 
2.4896 9.3551 -1.8111 -0.64196 0.41563 -0.64431 
2.4923 9.4204 -1.7575 -0.49825 0.30857 -0.81027 
2.5086 9.5619 -1.7595 -0.44028 0.076937 -0.89456 
2.5206 9.6789 -1.7441 -0.4822 0.27006 -0.8334 
2.5277 9.7685 -1.7091 -0.50173 0.41217 -0.76051 
2.5346 9.8569 -1.6736 -0.58278 0.42094 -0.6951 
2.5363 9.9159 -1.6166 -0.62555 0.58775 -0.51306 
2.5345 9.9558 -1.5454 -0.67112 0.73312 -0.11016 
2.5208 9.93 -1.4251 -0.64699 0.75233 -0.12414 
2.5189 9.9696 -1.3534 -0.43248 0.27473 -0.85877 
2.5334 10.1 -1.3504 -0.23968 0.037221 -0.97014 
2.5499 10.242 -1.3562 -0.26431 -0.099787 -0.95926 
2.5738 10.425 -1.3936 -0.26125 -0.10044 -0.96003 
2.5922 10.576 -1.4084 -0.18901 0.064279 -0.97987 
2.5985 10.661 -1.3727 -0.14772 0.057874 -0.98733 
2.6196 10.827 -1.3999 -0.17202 0.019739 -0.98489 
2.628 10.923 -1.3741 -0.26506 0.16271 -0.9504 
2.64 11.039 -1.3634 -0.31323 0.22849 -0.92178 
2.6473 11.129 -1.3332 -0.32954 0.46288 -0.82289 
2.6517 11.203 -1.291 -0.49946 0.58205 -0.64168 
2.6499 11.243 -1.2219 -0.54433 0.8168 -0.19118 
2.6392 11.235 -1.1147 -0.5466 0.80636 -0.22585 
2.6376 11.277 -1.0465 -0.45779 0.38217 -0.80273 
2.6504 11.397 -1.041 -0.18348 0.055435 -0.98146 
2.6661 11.532 -1.0484 -0.087599 -0.084887 -0.99253 
2.6839 11.678 -1.0658 -0.15114 0.0077818 -0.98848 
2.695 11.788 -1.0538 -0.21401 -0.0031918 -0.97683 
2.7117 11.929 -1.0674 -0.11786 -0.033097 -0.99248 
2.7273 12.063 -1.0764 -0.19167 -0.042613 -0.98053 
2.7417 12.19 -1.0804 -0.23972 0.19813 -0.95041 
2.7473 12.27 -1.046 -0.28004 0.35945 -0.89015 
2.7516 12.343 -1.0059 -0.38931 0.61699 -0.68393 
2.7499 12.384 -0.93928 -0.36741 0.87809 -0.30653 
2.743 12.397 -0.84968 -0.38502 0.92262 -0.023124 
2.7298 12.378 -0.73163 -0.50875 0.77724 -0.37024 
2.7349 12.456 -0.696 -0.40304 0.31464 -0.85939 
2.744 12.555 -0.67819 -0.38886 0.23279 -0.8914 
2.7509 12.642 -0.65066 -0.33591 0.1674 -0.9269 
2.7654 12.769 -0.65785 -0.25523 -0.071748 -0.96421 
2.7833 12.913 -0.68063 -0.3375 -0.10513 -0.93544 
2.7985 13.044 -0.69213 -0.44419 0.079847 -0.89236 
2.8094 13.151 -0.6841 -0.45278 0.18288 -0.87266 
2.8156 13.234 -0.65549 -0.47226 0.45739 -0.7535 
2.8153 13.283 -0.59688 -0.67618 0.63641 -0.37117 
2.9816 14.791 -0.6493 -0.91819 0.053496 -0.39251 
3.0091 14.98 -0.72598 -0.88803 0.10702 -0.44716 
3.0137 15.053 -0.69445 -0.86869 0.2592 -0.42213 
3.0182 15.125 -0.66243 -0.83768 0.3964 -0.37571 
3.0164 15.166 -0.60037 -0.85189 0.33927 -0.39897 
2.464 7.7446 -2.7074 -0.21003 -0.2163 -0.95347 
2.4994 8.003 -2.7769 -0.28162 -0.14867 -0.94794 
2.5161 8.1498 -2.7745 -0.55637 0.16403 -0.81458 
2.522 8.2331 -2.7307 -0.65006 0.32509 -0.68683 
2.5301 8.3291 -2.6956 -0.65768 0.31955 -0.68216 
2.539 8.4299 -2.6639 -0.69114 0.41727 -0.59009 
2.5386 8.4761 -2.596 -0.67969 0.4185 -0.60239 
2.548 8.5799 -2.567 -0.6483 0.34393 -0.67928 
2.5564 8.6772 -2.5339 -0.65178 0.43304 -0.62262 
2.5557 8.7222 -2.4655 -0.66534 0.60757 -0.4338 
2.5563 8.7743 -2.402 -0.63517 0.69571 -0.33549 
2.5516 8.7958 -2.3175 -0.60887 0.79139 0.054567 
2.5328 8.7351 -2.176 -0.57683 0.75847 0.3033 
2.5081 8.6412 -2.0106 -0.71023 0.63197 -0.31013 
2.5225 8.7743 -2.0027 -0.52438 0.12803 -0.8418 
2.5397 8.9232 -2.0064 -0.55877 0.12597 -0.8197 
2.5502 9.0335 -1.9837 -0.61962 0.23708 -0.74824 
2.5597 9.1375 -1.9569 -0.60038 0.26794 -0.75349 
2.5688 9.2397 -1.9292 -0.55803 0.22336 -0.7992 
2.5787 9.3463 -1.905 -0.60535 0.29449 -0.73948 
2.5861 9.4383 -1.8707 -0.64449 0.53026 -0.55087 
2.583 9.47 -1.7932 -0.52722 0.23597 -0.81631 
2.6025 9.6311 -1.8095 -0.41256 0.11703 -0.90338 
2.6102 9.7249 -1.7774 -0.42552 0.33394 -0.84108 
2.6155 9.8049 -1.7356 -0.51983 0.31728 -0.79316 
2.6243 9.9043 -1.7083 -0.55355 0.43453 -0.71047 
2.6276 9.9732 -1.6587 -0.60128 0.49266 -0.62908 
2.6288 10.029 -1.6 -0.65303 0.70162 -0.28509 
2.6196 10.028 -1.4979 -0.63761 0.77036 -0.00099334 
2.6085 10.015 -1.3873 -0.63412 0.53887 -0.55454 
2.6186 10.122 -1.3666 -0.34934 0.077196 -0.93381 
2.6405 10.296 -1.3965 -0.21334 -0.1041 -0.97142 
2.6573 10.44 -1.4056 -0.014497 -0.059217 -0.99814 
2.675 10.59 -1.4187 -0.057232 0.10087 -0.99325 
2.6841 10.691 -1.3955 -0.18024 -0.0064885 -0.9836 
2.7019 10.84 -1.41 -0.22526 0.013723 -0.9742 
2.716 10.969 -1.409 -0.29438 0.11811 -0.94836 
2.7249 11.068 -1.386 -0.24752 0.31792 -0.91524 
2.7304 11.148 -1.3485 -0.35397 0.31281 -0.88139 
2.7394 11.249 -1.3269 -0.52048 0.52394 -0.67423 
2.7363 11.281 -1.2519 -0.4902 0.82664 -0.27634 
2.729 11.291 -1.1589 -0.51358 0.83671 -0.19013 
2.7263 11.327 -1.0864 -0.44808 0.59481 -0.6674 
2.7291 11.392 -1.0374 -0.15678 0.16958 -0.97296 
2.7472 11.542 -1.0568 -0.082785 -0.090344 -0.99246 
2.7645 11.688 -1.073 -0.096696 -0.044549 -0.99432 
2.7781 11.812 -1.0732 -0.089451 0.038074 -0.99526 
2.7883 11.919 -1.0591 0.0025988 -0.04243 -0.9991 
2.8094 12.084 -1.0938 -0.083876 -0.084943 -0.99285 
2.8182 12.182 -1.0738 -0.12695 0.1835 -0.97479 
2.829 12.291 -1.0633 -0.28623 0.24101 -0.92735 
2.8355 12.376 -1.0334 -0.44581 0.55215 -0.70454 
2.8334 12.414 -0.96489 -0.44219 0.84126 -0.31105 
2.8255 12.422 -0.87024 -0.39723 0.91519 -0.068125 
2.8169 12.426 -0.77231 -0.4824 0.78043 -0.39776 
2.8207 12.497 -0.73097 -0.44807 0.3029 -0.84112 
2.8303 12.6 -0.71608 -0.38748 0.31022 -0.86811 
2.8343 12.672 -0.67623 -0.25273 0.21831 -0.94259 
2.8465 12.788 -0.67397 -0.26806 -0.14234 -0.95283 
2.8727 12.978 -0.7367 -0.3436 -0.12601 -0.93062 
2.8825 13.081 -0.72443 -0.35992 0.12381 -0.92473 
2.8929 13.187 -0.71504 -0.41409 0.19305 -0.88953 
2.8995 13.272 -0.68857 -0.54145 0.37164 -0.75413 
2.9038 13.345 -0.65143 -0.62637 0.45767 -0.63103 
2.9039 13.396 -0.59477 -0.71401 0.69328 -0.097767 
2.8668 13.252 -0.36444 -0.72928 0.63377 0.25784 
3.087 14.854 -0.90822 -0.85486 0.080371 -0.5126 
3.1073 15.008 -0.95189 -0.84018 0.26198 -0.47483 
3.11 15.071 -0.9115 -0.87806 0.19335 -0.43776 
3.1094 15.117 -0.85515 -0.78053 0.40095 -0.47961 
3.1121 15.18 -0.8148 -0.70208 0.50255 -0.50451 
3.1098 15.218 -0.75053 -0.74172 0.47483 -0.4737 
3.114 15.289 -0.71786 -0.6607 0.41462 -0.62575 
3.1161 15.35 -0.67558 -0.72046 0.47107 -0.50895 
3.1034 15.335 -0.56059 -0.80589 0.58951 -0.055012 
2.5433 7.7178 -2.6898 -0.021982 -0.30784 -0.95118 
2.5895 8.045 -2.8043 -0.21715 -0.23471 -0.9475 
2.6138 8.2391 -2.833 -0.52994 0.091913 -0.84304 
2.6213 8.3322 -2.796 -0.66214 0.30429 -0.68482 
2.6292 8.4275 -2.7607 -0.68949 0.28408 -0.66626 
2.6357 8.5149 -2.7205 -0.73562 0.41747 -0.53345 
2.6386 8.5804 -2.6659 -0.73286 0.41901 -0.53605 
2.6411 8.6435 -2.6097 -0.65694 0.4256 -0.62233 
2.6484 8.7354 -2.5732 -0.65293 0.4226 -0.62856 
2.6524 8.8076 -2.5235 -0.73123 0.52637 -0.43388 
2.6482 8.8312 -2.4408 -0.74364 0.6043 -0.28605 
2.644 8.8552 -2.3581 -0.69532 0.7181 -0.029188 
2.6314 8.8295 -2.241 -0.60153 0.76673 0.22424 
2.6114 8.7606 -2.0934 -0.76932 0.61814 -0.16138 
2.6196 8.8583 -2.0611 -0.60014 0.20765 -0.77248 
2.6357 9.0023 -2.0617 -0.42904 0.16747 -0.88763 
2.646 9.1126 -2.0393 -0.41739 0.27548 -0.86597 
2.6516 9.1944 -1.997 -0.50184 0.25755 -0.82573 
2.6626 9.3083 -1.9778 -0.55084 0.20528 -0.80897 
2.673 9.4186 -1.9565 -0.58179 0.30523 -0.75389 
2.6767 9.4897 -1.9075 -0.67028 0.51626 -0.53311 
2.6757 9.5331 -1.8386 -0.58661 0.3609 -0.72501 
2.6876 9.6523 -1.8247 -0.37651 0.24096 -0.89452 
2.6993 9.7697 -1.8099 -0.4453 0.18147 -0.8768 
2.7098 9.8799 -1.7904 -0.53441 0.31508 -0.78431 
2.713 9.948 -1.7403 -0.54937 0.42473 -0.71958 
2.7199 10.038 -1.7062 -0.59989 0.46309 -0.65244 
2.7215 10.096 -1.6496 -0.65339 0.68043 -0.33181 
2.7117 10.09 -1.5441 -0.62632 0.7793 -0.020593 
2.7037 10.094 -1.4463 -0.61978 0.70399 -0.34681 
2.7053 10.153 -1.3898 -0.24998 0.11111 -0.96185 
2.7233 10.307 -1.4048 0.035122 0.0074366 -0.99936 
2.7354 10.426 -1.3945 0.050521 -0.045091 -0.9977 
2.7528 10.575 -1.4073 -0.12952 -0.064798 -0.98946 
2.7699 10.723 -1.4198 -0.25486 -0.020274 -0.96677 
2.7859 10.863 -1.4278 -0.076647 0.032723 -0.99652 
2.7986 10.985 -1.422 -0.11534 0.1031 -0.98796 
2.8066 11.081 -1.3957 -0.28678 0.2354 -0.92862 
2.8171 11.19 -1.3806 -0.37881 0.19052 -0.90565 
2.8266 11.293 -1.3617 -0.42587 0.52882 -0.73416 
2.8221 11.318 -1.2808 -0.53402 0.79753 -0.28067 
2.8171 11.34 -1.1974 -0.56092 0.80394 -0.19759 
2.8105 11.353 -1.1073 -0.50274 0.74159 -0.44418 
2.8133 11.419 -1.0587 -0.21148 0.1678 -0.96287 
2.8264 11.543 -1.057 0.051425 -0.049933 -0.99743 
2.8451 11.698 -1.081 0.070376 -0.073332 -0.99482 
2.857 11.814 -1.0746 0.0048186 0.11124 -0.99378 
2.8664 11.917 -1.0574 -0.081784 -0.10207 -0.99141 
2.8896 12.096 -1.1032 -0.11873 -0.080047 -0.98969 
2.9003 12.205 -1.0924 -0.159 0.11202 -0.9809 
2.9107 12.312 -1.0807 -0.2532 0.146 -0.95633 
2.9204 12.416 -1.0666 -0.41667 0.50802 -0.75386 
2.9164 12.444 -0.9893 -0.46016 0.81443 -0.35349 
2.9122 12.471 -0.91109 -0.45736 0.88749 -0.056444 
2.9 12.455 -0.79629 -0.4792 0.7929 -0.3764 
2.9049 12.532 -0.76013 -0.30664 0.41397 -0.85709 
2.9109 12.615 -0.72949 -0.24353 0.37765 -0.89335 
2.9144 12.685 -0.68732 -0.37661 0.11964 -0.91861 
2.9317 12.83 -0.70988 -0.30079 -0.17007 -0.9384 
2.9544 13.004 -0.75863 -0.19943 -0.084509 -0.97626 
2.9648 13.11 -0.74956 -0.29521 0.053737 -0.95392 
2.9767 13.225 -0.74823 -0.4154 0.1332 -0.89983 
2.9846 13.318 -0.72869 -0.42983 0.35532 -0.83005 
2.9894 13.394 -0.6945 -0.48729 0.47554 -0.7324 
2.99 13.448 -0.64026 -0.60299 0.65605 -0.45387 
2.983 13.461 -0.55044 -0.85548 0.51763 -0.014882 
2.9538 13.356 -0.35429 -0.79667 0.57391 0.18956 
3.0148 13.783 -0.5329 -0.9095 -0.04851 -0.41287 
3.0686 14.119 -0.73601 -0.87013 -0.047564 -0.49052 
3.0786 14.222 -0.72893 -0.90269 0.072166 -0.42421 
3.0871 14.317 -0.71473 -0.92856 0.13459 -0.34593 
3.1643 14.775 -1.0346 -0.85677 0.024451 -0.51512 
3.188 14.949 -1.0956 -0.81258 0.24271 -0.52991 
3.1909 15.014 -1.0564 -0.75522 0.32417 -0.5697 
3.1903 15.06 -1.0002 -0.54552 0.69834 -0.46339 
3.1876 15.095 -0.93354 -0.44543 0.6971 -0.56181 
3.1885 15.149 -0.88482 -0.29091 0.67203 -0.68098 
3.1877 15.194 -0.8277 -0.24451 0.7473 -0.61787 
3.1866 15.238 -0.7688 -0.28459 0.68066 -0.67506 
3.1877 15.293 -0.72164 -0.30454 0.43013 -0.84985 
3.1962 15.387 -0.71062 -0.30312 0.29821 -0.90509 
3.2 15.456 -0.67697 -0.71879 0.54554 -0.43096 
3.1914 15.462 -0.58146 -0.76973 0.63777 -0.027755 
2.6277 7.7215 -2.6921 -0.12433 -0.34093 -0.93183 
2.6837 8.1129 -2.8485 -0.24845 -0.23921 -0.93864 
2.7069 8.3028 -2.8748 -0.44228 0.062364 -0.8947 
2.7159 8.4062 -2.8447 -0.60844 0.21863 -0.76289 
2.7282 8.5289 -2.8279 -0.64733 0.30286 -0.69945 
2.7331 8.6066 -2.7816 -0.67651 0.42358 -0.60243 
2.7363 8.6745 -2.7288 -0.7049 0.49444 -0.50857 
2.7366 8.7245 -2.6642 -0.68849 0.44425 -0.57325 
2.7431 8.8121 -2.625 -0.63533 0.43493 -0.63812 
2.7478 8.8885 -2.5785 -0.64768 0.50663 -0.56906 
2.7478 8.9371 -2.5131 -0.72287 0.57695 -0.38025 
2.7481 8.9872 -2.4487 -0.74918 0.64261 -0.16056 
2.7325 8.9419 -2.3185 -0.6964 0.69341 0.18493 
2.7123 8.8702 -2.1693 -0.7197 0.69427 0.0041307 
2.711 8.911 -2.0978 -0.47516 0.42269 -0.77172 
2.7185 9.0058 -2.064 -0.34285 0.23227 -0.91022 
2.7311 9.1302 -2.0515 -0.45821 0.14784 -0.87646 
2.7443 9.2581 -2.042 -0.54055 0.17267 -0.8234 
2.7547 9.3692 -2.021 -0.51685 0.21284 -0.8292 
2.7654 9.4822 -2.0018 -0.53253 0.29867 -0.79197 
2.7725 9.5738 -1.9678 -0.59323 0.45506 -0.66408 
2.7716 9.6175 -1.8993 -0.63325 0.54827 -0.54625 
2.7735 9.6786 -1.8436 -0.36535 0.23798 -0.89994 
2.7892 9.8208 -1.847 -0.43318 0.093535 -0.89644 
2.7979 9.9212 -1.8204 -0.53074 0.35086 -0.7715 
2.8041 10.007 -1.7838 -0.54872 0.38417 -0.74251 
2.8086 10.083 -1.74 -0.56699 0.46257 -0.68158 
2.8123 10.155 -1.6929 -0.65954 0.55691 -0.50483 
2.8086 10.183 -1.6135 -0.6791 0.73305 -0.03833 
2.7962 10.16 -1.496 -0.63787 0.76943 -0.033126 
2.7912 10.181 -1.4106 -0.39518 0.48645 -0.77923 
2.7993 10.279 -1.3832 -0.087471 0.10292 -0.99084 
2.8187 10.441 -1.4057 -0.19244 -0.13988 -0.97129 
2.8424 10.629 -1.4482 -0.25096 -0.08212 -0.96451 
2.8535 10.743 -1.4356 -0.21739 0.098424 -0.97111 
2.8625 10.845 -1.4136 -0.11269 0.071097 -0.99108 
2.8814 11.004 -1.4364 -0.18917 0.009448 -0.9819 
2.8918 11.114 -1.4213 -0.29996 0.15042 -0.94202 
2.9014 11.219 -1.403 -0.2963 0.24082 -0.92424 
2.9082 11.307 -1.3727 -0.28837 0.44225 -0.84927 
2.9101 11.369 -1.3206 -0.44001 0.76458 -0.47096 
2.9061 11.395 -1.2414 -0.44777 0.86105 -0.24102 
2.9013 11.418 -1.1589 -0.45664 0.8489 -0.26618 
2.8961 11.439 -1.0745 -0.31501 0.55325 -0.77115 
2.9025 11.526 -1.0428 -0.038323 0.14952 -0.98802 
2.9183 11.666 -1.055 0.067932 -0.11603 -0.99092 
2.9353 11.813 -1.0731 -0.052901 -0.044819 -0.99759 
2.9494 11.942 -1.0779 -0.083628 -0.097144 -0.99175 
2.9684 12.1 -1.1065 0.085091 -0.053784 -0.99492 
2.9793 12.211 -1.0978 -0.065196 0.006352 -0.99785 
2.9923 12.334 -1.0988 -0.19785 0.074506 -0.9774 
3.0022 12.44 -1.0862 -0.24882 0.40449 -0.88004 
3.0001 12.478 -1.0176 -0.39355 0.8158 -0.42379 
2.9974 12.513 -0.94629 -0.34705 0.93219 -0.1028 
2.9849 12.494 -0.82921 -0.36808 0.89178 -0.26315 
2.9834 12.536 -0.76352 -0.25197 0.43164 -0.86614 
2.9935 12.643 -0.75286 -0.40056 0.18102 -0.89821 
3.0023 12.742 -0.73616 -0.42447 0.067619 -0.90291 
3.0157 12.867 -0.74185 -0.20546 -0.081741 -0.97525 
3.0324 13.01 -0.76336 -0.14251 -0.095343 -0.98519 
3.0473 13.142 -0.77685 -0.31112 -0.043716 -0.94937 
3.0599 13.262 -0.78028 -0.35712 0.20041 -0.91231 
3.0628 13.328 -0.73702 -0.42308 0.31598 -0.84921 
3.071 13.423 -0.71984 -0.60545 0.25741 -0.75311 
3.0765 13.504 -0.68945 -0.80659 -0.038817 -0.58983 
3.108 13.726 -0.78537 -0.89483 0.00016451 -0.44642 
3.144 13.972 -0.90435 -0.81973 -0.075608 -0.56773 
3.1647 14.134 -0.94929 -0.8958 0.087552 -0.43574 
3.1726 14.226 -0.93261 -0.89089 0.04676 -0.45181 
3.1801 14.317 -0.91465 -0.8474 0.030782 -0.53006 
3.2 14.473 -0.95705 -0.80721 -0.16145 -0.56775 
3.2664 14.88 -1.2293 -0.78811 -0.082209 -0.61001 
3.2724 14.961 -1.2055 -0.77746 0.24835 -0.57782 
3.2735 15.016 -1.1576 -0.57587 0.68668 -0.44367 
3.27 15.047 -1.0869 -0.47236 0.73124 -0.4921 
3.2688 15.089 -1.0275 -0.34676 0.77888 -0.5226 
3.2664 15.126 -0.96252 -0.35522 0.83014 -0.42976 
3.2628 15.156 -0.89118 -0.27066 0.78238 -0.56091 
3.2627 15.205 -0.83747 -0.22734 0.72033 -0.65532 
3.2635 15.259 -0.78853 -0.25214 0.65125 -0.71575 
3.2652 15.317 -0.74402 -0.20402 0.44069 -0.87417 
3.2693 15.389 -0.71204 -0.23597 0.25201 -0.93852 
3.2788 15.488 -0.70732 -0.35165 0.17846 -0.91896 
3.2838 15.564 -0.68023 -0.71396 0.62567 -0.31432 
3.2671 15.527 -0.54327 -0.625 0.74511 0.23278 
2.7753 8.1678 -2.8843 -0.24147 -0.20651 -0.94818 
2.7993 8.3647 -2.9153 -0.41136 -0.0010666 -0.91147 
2.8121 8.4922 -2.9014 -0.56324 0.2086 -0.79953 
2.8186 8.5805 -2.862 -0.59933 0.34609 -0.72182 
2.8262 8.6756 -2.8274 -0.61282 0.43473 -0.6599 
2.83 8.7468 -2.7772 -0.62913 0.51743 -0.58005 
2.8317 8.8054 -2.7185 -0.62285 0.53938 -0.56668 
2.8327 8.8596 -2.657 -0.55022 0.50101 -0.66801 
2.8405 8.956 -2.6242 -0.5336 0.50283 -0.68003 
2.8394 8.9972 -2.5541 -0.60788 0.62536 -0.48928 
2.8398 9.048 -2.4904 -0.68928 0.60336 -0.40107 
2.836 9.0732 -2.4091 -0.68257 0.723 0.10664 
2.818 9.0126 -2.268 -0.67115 0.71354 0.20106 
2.8026 8.9678 -2.1373 -0.73532 0.57833 -0.35333 
2.8113 9.0696 -2.1086 -0.57536 0.19489 -0.79435 
2.8268 9.2132 -2.1098 -0.50803 0.11564 -0.85354 
2.8368 9.3226 -2.0875 -0.47817 0.25388 -0.84077 
2.845 9.4217 -2.0582 -0.44356 0.25998 -0.85771 
2.8529 9.5188 -2.0279 -0.42814 0.31238 -0.848 
2.861 9.6169 -1.9985 -0.47899 0.46006 -0.7476 
2.8641 9.6845 -1.9476 -0.52566 0.69354 -0.49263 
2.8612 9.7167 -1.8711 -0.39351 0.26163 -0.8813 
2.8814 9.8871 -1.8952 -0.37804 0.043537 -0.92477 
2.8876 9.9736 -1.8587 -0.53974 0.34017 -0.77004 
2.8934 10.058 -1.8211 -0.57408 0.3833 -0.72355 
2.899 10.141 -1.7825 -0.59691 0.40142 -0.69467 
2.9037 10.219 -1.74 -0.60303 0.50646 -0.61632 
2.9042 10.271 -1.6793 -0.65173 0.72588 -0.21988 
2.8921 10.249 -1.5624 -0.60681 0.78903 0.095988 
2.8805 10.23 -1.4474 -0.59522 0.70957 -0.37712 
2.884 10.301 -1.3999 -0.28708 0.15515 -0.94526 
2.9043 10.471 -1.4285 -0.11556 -0.16056 -0.98024 
2.926 10.649 -1.4637 -0.13978 -0.10197 -0.98492 
2.9409 10.787 -1.4688 -0.24972 0.1448 -0.95743 
2.9459 10.866 -1.4294 -0.15885 0.095164 -0.98271 
2.9637 11.02 -1.4488 -0.15456 -0.029519 -0.98754 
2.9764 11.144 -1.4451 -0.21927 0.13028 -0.96693 
2.985 11.245 -1.4234 -0.25248 0.26099 -0.93174 
2.9918 11.334 -1.3936 -0.31464 0.44961 -0.83597 
2.9945 11.4 -1.3452 -0.39891 0.73822 -0.54397 
2.9895 11.421 -1.2613 -0.40654 0.89865 -0.16476 
2.9815 11.424 -1.1636 -0.3463 0.89647 -0.27644 
2.9795 11.463 -1.0934 -0.3356 0.66711 -0.66509 
2.984 11.54 -1.0539 -0.17958 0.18538 -0.96612 
2.9991 11.677 -1.0639 -0.032512 -0.10217 -0.99424 
3.0173 11.832 -1.0887 -0.052294 -0.067438 -0.99635 
3.0296 11.953 -1.0866 -0.060755 0.0016992 -0.99815 
3.0415 12.072 -1.0831 0.051023 -0.060349 -0.99687 
3.0599 12.227 -1.1105 -0.11098 -0.10686 -0.98806 
3.0722 12.347 -1.1095 -0.18383 0.072711 -0.98027 
3.0821 12.454 -1.0978 -0.23891 0.41674 -0.87707 
3.084 12.515 -1.0481 -0.39309 0.78732 -0.47498 
3.0775 12.528 -0.95889 -0.29908 0.95139 -0.073604 
3.0662 12.514 -0.8462 -0.318 0.93085 -0.17999 
3.0657 12.562 -0.78533 -0.35442 0.37627 -0.85605 
3.0778 12.681 -0.78501 -0.33858 0.11149 -0.93431 
3.0859 12.777 -0.76572 -0.32726 0.14619 -0.93356 
3.0946 12.876 -0.74962 -0.18062 -0.0073182 -0.98353 
3.1128 13.029 -0.78015 -0.20308 -0.16353 -0.96541 
3.131 13.181 -0.81104 -0.2533 -0.058806 -0.9656 
3.1412 13.289 -0.8036 -0.34062 0.16025 -0.92644 
3.1502 13.389 -0.79058 -0.51155 0.092134 -0.8543 
3.1623 13.507 -0.79353 -0.7155 -0.19424 -0.67107 
3.21 13.822 -0.97126 -0.79395 -0.15837 -0.58699 
3.2384 14.029 -1.0554 -0.79707 -0.079459 -0.59864 
3.2508 14.148 -1.0613 -0.76761 0.058715 -0.63822 
3.2606 14.251 -1.0546 -0.74953 0.19763 -0.63178 
3.2634 14.316 -1.0135 -0.76282 0.063203 -0.64351 
3.2849 14.484 -1.0657 -0.73103 -0.24093 -0.6384 
3.3457 14.867 -1.315 -0.73883 -0.20883 -0.64072 
3.3504 14.941 -1.285 -0.64129 0.38112 -0.66595 
3.3541 15.01 -1.25 -0.44081 0.68102 -0.58472 
3.3514 15.044 -1.1832 -0.39612 0.80824 -0.4357 
3.3469 15.069 -1.1069 -0.33148 0.88184 -0.33539 
3.3437 15.1 -1.0376 -0.20277 0.85078 -0.48483 
3.3416 15.138 -0.97399 -0.1526 0.87334 -0.46258 
3.3388 15.173 -0.90681 -0.19988 0.80129 -0.5639 
3.3393 15.225 -0.85618 -0.11091 0.77265 -0.62506 
3.3373 15.264 -0.79322 -0.13198 0.68384 -0.71759 
3.3398 15.327 -0.75277 -0.1561 0.39214 -0.90657 
3.3467 15.413 -0.73556 -0.29548 0.10993 -0.949 
3.3552 15.509 -0.72685 -0.4321 0.11348 -0.89466 
3.364 15.605 -0.71968 -0.64632 0.33074 -0.68766 
3.3622 15.645 -0.65833 -0.6658 0.73209 0.14404 
3.3255 15.5 -0.41578 -0.60653 0.71282 0.35215 
2.8646 8.21 -2.9118 -0.1874 -0.1654 -0.96826 
2.8919 8.4304 -2.9584 -0.29683 -0.084374 -0.95119 
2.9053 8.5627 -2.9479 -0.49813 0.21896 -0.839 
2.9134 8.6617 -2.9158 -0.56728 0.36485 -0.7383 
2.9157 8.7241 -2.8597 -0.5595 0.51463 -0.6497 
2.9205 8.8019 -2.814 -0.56776 0.52323 -0.63552 
2.9221 8.8597 -2.755 -0.58629 0.60469 -0.53908 
2.922 8.9076 -2.6894 -0.56195 0.51978 -0.64346 
2.9273 8.9887 -2.6464 -0.56776 0.48986 -0.66158 
2.9308 9.0586 -2.5959 -0.65195 0.4897 -0.57892 
2.934 9.1266 -2.5443 -0.68069 0.52157 -0.51442 
2.9337 9.1733 -2.4781 -0.71239 0.69491 -0.097922 
2.9159 9.1113 -2.3364 -0.64085 0.73288 0.22848 
2.9007 9.0656 -2.2053 -0.71667 0.67841 -0.16169 
2.9034 9.1314 -2.1518 -0.48573 0.22665 -0.84421 
2.917 9.2646 -2.1459 -0.35824 0.20363 -0.91115 
2.9243 9.3587 -2.1129 -0.42081 0.22565 -0.87863 
2.9343 9.4694 -2.092 -0.43961 0.30727 -0.84399 
2.9411 9.5605 -2.0575 -0.42383 0.3213 -0.84684 
2.9472 9.6471 -2.0201 -0.4947 0.39227 -0.7755 
2.9528 9.7306 -1.9807 -0.60536 0.68689 -0.40215 
2.9441 9.727 -1.8784 -0.40003 0.2678 -0.8765 
2.9693 9.9303 -1.9265 -0.3291 -0.0013633 -0.94429 
2.9784 10.035 -1.9037 -0.45475 0.29888 -0.83897 
2.9838 10.118 -1.8646 -0.52025 0.37222 -0.76863 
2.9892 10.199 -1.8254 -0.57207 0.40838 -0.71131 
2.9921 10.267 -1.7756 -0.59523 0.57287 -0.56348 
2.9934 10.324 -1.7185 -0.55046 0.77078 -0.32076 
2.9856 10.326 -1.6203 -0.56709 0.81933 0.084376 
2.9709 10.287 -1.4906 -0.57167 0.816 -0.085631 
2.968 10.32 -1.4141 -0.26185 0.19106 -0.94601 
2.9849 10.472 -1.4286 -0.06983 -0.12973 -0.98909 
3.0081 10.661 -1.4727 -0.009832 -0.12746 -0.9918 
3.0228 10.799 -1.478 -0.026119 0.20928 -0.97751 
3.0276 10.878 -1.4382 -0.12384 0.048679 -0.99111 
3.0457 11.036 -1.4604 -0.073708 -0.020792 -0.99706 
3.0574 11.155 -1.4533 -0.070773 0.09884 -0.99258 
3.0673 11.264 -1.4379 -0.198 0.20742 -0.95801 
3.074 11.354 -1.4087 -0.27161 0.42326 -0.86433 
3.0778 11.425 -1.3653 -0.33511 0.6853 -0.64657 
3.0751 11.46 -1.2921 -0.41059 0.88215 -0.23071 
3.0676 11.465 -1.1961 -0.48254 0.84517 -0.22988 
3.0648 11.499 -1.1222 -0.40484 0.78243 -0.47318 
3.0646 11.548 -1.0606 -0.011332 0.23741 -0.97134 
3.0769 11.671 -1.0587 0.0013565 -0.067233 -0.99774 
3.094 11.822 -1.0802 0.014584 -0.10952 -0.99388 
3.1095 11.963 -1.0942 -0.031499 -0.0071152 -0.99948 
3.1184 12.065 -1.077 -0.028729 -0.08826 -0.99568 
3.1411 12.247 -1.1266 -0.10074 -0.14748 -0.98392 
3.1533 12.368 -1.1265 -0.11719 0.096386 -0.98842 
3.1608 12.462 -1.1041 -0.17036 0.32283 -0.931 
3.1665 12.545 -1.0729 -0.34609 0.70108 -0.62346 
3.159 12.551 -0.97799 -0.41426 0.90934 -0.038547 
3.1494 12.546 -0.87289 -0.3727 0.91764 -0.13797 
3.1477 12.587 -0.80612 -0.2862 0.36973 -0.88396 
3.1597 12.707 -0.80677 -0.21756 0.07885 -0.97286 
3.1691 12.811 -0.79453 -0.33626 0.16895 -0.92649 
3.1746 12.893 -0.7636 -0.27375 0.014077 -0.9617 
3.1943 13.056 -0.80324 -0.17803 -0.16743 -0.96968 
3.2098 13.195 -0.82253 -0.16484 -0.050287 -0.98504 
3.2214 13.311 -0.82277 -0.23959 0.030821 -0.97038 
3.2338 13.432 -0.82746 -0.59621 -0.28947 -0.74883 
3.2988 13.85 -1.0953 -0.68038 -0.26223 -0.68433 
3.3173 14.004 -1.1318 -0.71485 -0.065815 -0.69617 
3.3304 14.127 -1.1421 -0.67341 0.096771 -0.73291 
3.3372 14.215 -1.1213 -0.65794 0.13202 -0.74141 
3.3473 14.321 -1.1174 -0.68378 0.12152 -0.7195 
3.3604 14.444 -1.1288 -0.687 -0.26246 -0.6776 
3.4237 14.847 -1.395 -0.69181 -0.25027 -0.67732 
3.4314 14.939 -1.3805 -0.64682 0.42034 -0.63635 
3.4301 14.98 -1.3206 -0.46937 0.73084 -0.49554 
3.4286 15.021 -1.2594 -0.17711 0.85712 -0.48372 
3.4263 15.057 -1.1942 -0.15382 0.86337 -0.48056 
3.4238 15.092 -1.1286 -0.22993 0.91884 -0.32072 
3.4181 15.11 -1.046 -0.16123 0.9259 -0.34163 
3.4158 15.146 -0.98109 -0.076304 0.8782 -0.47216 
3.4118 15.174 -0.90741 -0.049744 0.8642 -0.50069 
3.4116 15.222 -0.853 0.1457 0.76635 -0.62569 
3.4106 15.266 -0.79486 0.053501 0.68098 -0.73035 
3.4136 15.332 -0.75774 -0.16149 0.18623 -0.96914 
3.4248 15.443 -0.7638 -0.34517 -0.028127 -0.93812 
3.437 15.559 -0.77471 -0.47768 -0.0064546 -0.87851 
3.4473 15.665 -0.77673 -0.58792 0.28735 -0.75617 
3.4478 15.717 -0.72746 -0.65499 0.71553 -0.24291 
3.4352 15.698 -0.60902 -0.54489 0.76431 0.34486 
3.3901 15.505 -0.31894 -0.51188 0.74976 0.41934 
2.9469 8.2082 -2.9105 -0.136 -0.24254 -0.96056 
2.9815 8.4791 -2.9903 -0.27561 -0.090924 -0.95696 
2.9935 8.6039 -2.975 -0.44683 0.16991 -0.87834 
3.0039 8.7178 -2.953 -0.5758 0.3699 -0.72913 
3.0061 8.7797 -2.8967 -0.59988 0.50242 -0.62267 
3.0102 8.8539 -2.8488 -0.56745 0.53364 -0.62708 
3.013 8.9197 -2.7953 -0.58708 0.57679 -0.56802 
3.0137 8.9722 -2.733 -0.61258 0.48271 -0.62589 
3.0194 9.0566 -2.6925 -0.56878 0.47671 -0.67025 
3.0231 9.1281 -2.6433 -0.56497 0.49154 -0.66272 
3.026 9.1942 -2.5907 -0.5826 0.58847 -0.56061 
3.0266 9.2469 -2.5288 -0.66475 0.66588 -0.33871 
3.0186 9.2442 -2.4286 -0.6742 0.71882 0.16957 
2.9988 9.1682 -2.2768 -0.71016 0.69485 0.1134 
2.9927 9.1785 -2.1847 -0.64697 0.45331 -0.61314 
3.0016 9.2836 -2.1591 -0.44759 0.24218 -0.86082 
3.0158 9.4218 -2.1574 -0.41806 0.19703 -0.8868 
3.0202 9.4981 -2.1123 -0.41559 0.34008 -0.84358 
3.0302 9.6102 -2.0929 -0.40974 0.28798 -0.86555 
3.038 9.7079 -2.0637 -0.43134 0.3409 -0.8353 
3.0435 9.7911 -2.0242 -0.47387 0.71587 -0.51281 
3.0352 9.7885 -1.9229 -0.54702 0.3549 -0.75816 
3.0536 9.9524 -1.9424 -0.35151 0.032144 -0.93563 
3.0637 10.064 -1.925 -0.43357 0.26811 -0.86031 
3.0715 10.162 -1.8973 -0.5486 0.24172 -0.80038 
3.0793 10.259 -1.8696 -0.60949 0.39906 -0.68503 
3.083 10.332 -1.824 -0.62039 0.58591 -0.52137 
3.0795 10.36 -1.7451 -0.57661 0.76025 -0.29923 
3.0764 10.39 -1.6679 -0.48632 0.87262 -0.044987 
3.0644 10.366 -1.5497 -0.49471 0.86257 0.10599 
3.0556 10.362 -1.446 -0.438 0.5572 -0.70547 
3.0655 10.472 -1.4291 0.035467 -0.048038 -0.99822 
3.087 10.654 -1.467 0.013735 -0.16726 -0.98582 
3.1006 10.787 -1.4685 -0.12337 0.047038 -0.99125 
3.1114 10.902 -1.4572 -0.26263 0.047948 -0.9637 
3.1237 11.027 -1.4536 -0.047774 0.068956 -0.99648 
3.1373 11.159 -1.4564 -0.073647 0.012753 -0.9972 
3.1497 11.284 -1.454 -0.16073 0.1642 -0.97324 
3.156 11.372 -1.4232 -0.18011 0.41627 -0.89122 
3.1602 11.447 -1.3822 -0.28509 0.6221 -0.72919 
3.1584 11.486 -1.313 -0.39907 0.85249 -0.33765 
3.153 11.504 -1.2269 -0.41231 0.87731 -0.24563 
3.151 11.542 -1.1567 -0.36454 0.89673 -0.25098 
3.1431 11.545 -1.0582 -0.20438 0.48417 -0.85077 
3.157 11.679 -1.0649 -0.074071 -0.065559 -0.9951 
3.1725 11.822 -1.0799 0.055383 -0.10138 -0.99331 
3.1884 11.967 -1.0973 0.031622 0.020939 -0.99928 
3.1974 12.07 -1.0812 0.019255 -0.13785 -0.99027 
3.2195 12.251 -1.1301 0.05262 -0.13294 -0.98973 
3.2315 12.372 -1.1298 -0.027845 0.10141 -0.99445 
3.2403 12.474 -1.1144 -0.11581 0.2404 -0.96374 
3.2449 12.552 -1.0787 -0.22213 0.51848 -0.82573 
3.2451 12.603 -1.0213 -0.41298 0.88117 -0.23019 
3.234 12.588 -0.90781 -0.46392 0.88575 -0.015031 
3.2268 12.596 -0.81368 -0.34705 0.48989 -0.79973 
3.239 12.718 -0.81629 -0.19972 0.030059 -0.97939 
3.2529 12.85 -0.8277 -0.27593 0.12345 -0.95322 
3.257 12.924 -0.79004 -0.29362 0.026529 -0.95555 
3.2738 13.072 -0.81676 -0.16857 -0.11808 -0.97859 
3.2892 13.212 -0.83708 -0.16907 -0.065792 -0.98341 
3.3001 13.325 -0.83517 -0.4194 -0.30364 -0.85551 
3.3613 13.729 -1.0881 -0.50075 -0.39109 -0.7722 
3.3938 13.966 -1.1972 -0.59833 -0.15836 -0.78544 
3.4075 14.094 -1.2115 -0.61511 0.031296 -0.78782 
3.4157 14.19 -1.1979 -0.63944 0.14321 -0.75539 
3.4259 14.298 -1.195 -0.64396 0.13793 -0.75252 
3.4319 14.382 -1.1713 -0.63657 -0.2404 -0.73279 
3.4924 14.776 -1.4281 -0.58764 -0.33255 -0.73762 
3.5084 14.916 -1.4569 -0.60182 0.21364 -0.76953 
3.5108 14.978 -1.4159 -0.28334 0.69234 -0.66361 
3.5102 15.023 -1.3593 -0.3662 0.83794 -0.40467 
3.5034 15.033 -1.2706 -0.34495 0.89145 -0.29382 
3.4998 15.062 -1.1987 -0.16546 0.89991 -0.40346 
3.4978 15.1 -1.1355 -0.091557 0.89743 -0.43154 
3.4928 15.121 -1.056 -0.219 0.9436 -0.2483 
3.4875 15.141 -0.97542 -0.12999 0.88479 -0.44748 
3.4869 15.186 -0.91906 -0.11069 0.90808 -0.4039 
3.4822 15.21 -0.84141 0.033523 0.84364 -0.53587 
3.4822 15.259 -0.78837 -0.05526 0.49585 -0.86665 
3.4893 15.348 -0.77292 -0.26275 -0.011875 -0.96479 
3.503 15.474 -0.79337 -0.36684 -0.11867 -0.92268 
3.5172 15.603 -0.81658 -0.46046 -0.053618 -0.88606 
3.5273 15.708 -0.81826 -0.5604 0.34399 -0.75341 
3.5259 15.749 -0.75863 -0.53392 0.75849 -0.37365 
3.5213 15.774 -0.68235 -0.48744 0.84109 0.23447 
3.4825 15.611 -0.42187 -0.51088 0.76535 0.39147 
3.0703 8.5242 -3.0198 -0.26307 -0.11517 -0.95788 
3.0859 8.6734 -3.0208 -0.45246 0.098746 -0.8863 
3.0955 8.7838 -2.9967 -0.58319 0.38624 -0.71464 
3.0973 8.8432 -2.939 -0.62032 0.52785 -0.58015 
3.0988 8.9006 -2.8799 -0.63231 0.50716 -0.58564 
3.102 8.9694 -2.8287 -0.62484 0.54532 -0.55875 
3.1045 9.0334 -2.7744 -0.58196 0.54261 -0.60572 
3.1056 9.0881 -2.7138 -0.51034 0.54908 -0.66186 
3.1108 9.1701 -2.6719 -0.51564 0.49892 -0.69656 
3.1126 9.2299 -2.6151 -0.55309 0.53258 -0.64066 
3.1175 9.3098 -2.5721 -0.55466 0.61258 -0.56312 
3.1152 9.3429 -2.4969 -0.64896 0.75785 -0.067194 
3.1004 9.2965 -2.3662 -0.6628 0.73178 0.15872 
3.0894 9.2742 -2.2516 -0.70689 0.6702 -0.22615 
3.0899 9.3265 -2.1892 -0.35701 0.27472 -0.89279 
3.1028 9.458 -2.1829 -0.25494 0.26256 -0.93063 
3.1084 9.5427 -2.1439 -0.32687 0.32051 -0.88906 
3.1139 9.6267 -2.1046 -0.36175 0.31086 -0.87892 
3.1223 9.7292 -2.0788 -0.40803 0.35081 -0.84288 
3.1263 9.8039 -2.0334 -0.66541 0.37643 -0.64461 
3.1256 9.8487 -1.9663 -0.80337 0.12453 -0.58231 
3.1442 10.016 -1.9884 -0.85395 0.11941 -0.50646 
3.1511 10.108 -1.9568 -0.8531 0.2048 -0.47987 
3.1649 10.244 -1.9577 -0.78809 0.36892 -0.49276 
3.1672 10.308 -1.9053 -0.53046 0.50822 -0.67848 
3.1706 10.379 -1.8586 -0.48059 0.59981 -0.63973 
3.1708 10.429 -1.797 -0.62436 0.70623 -0.33379 
3.1624 10.426 -1.6946 -0.61973 0.78373 -0.041215 
3.1527 10.415 -1.5862 -0.50667 0.84837 0.15345 
3.1398 10.384 -1.4626 -0.39121 0.85101 -0.35034 
3.1428 10.453 -1.414 -0.15434 0.0081863 -0.98798 
3.1691 10.667 -1.4768 -0.16997 -0.18301 -0.96831 
3.1871 10.828 -1.5001 -0.23128 -0.0030662 -0.97288 
3.1979 10.945 -1.4903 -0.19813 0.17132 -0.96509 
3.2029 11.026 -1.4527 -0.1086 0.12674 -0.98597 
3.2179 11.168 -1.4633 -0.065852 0.0013306 -0.99783 
3.23 11.293 -1.4603 -0.012361 0.1693 -0.98549 
3.2358 11.378 -1.4277 -0.11254 0.33859 -0.93418 
3.2418 11.465 -1.3963 -0.1802 0.51166 -0.84008 
3.2424 11.519 -1.3385 -0.33096 0.79772 -0.50409 
3.2384 11.544 -1.2586 -0.40183 0.89191 -0.20743 
3.2317 11.553 -1.1651 -0.28933 0.94733 -0.13731 
3.2255 11.566 -1.0743 -0.18158 0.56907 -0.80199 
3.2369 11.686 -1.0703 -0.018849 0.0172 -0.99967 
3.2479 11.803 -1.0643 0.035712 -0.04665 -0.99827 
3.2644 11.953 -1.0861 0.064005 -0.061844 -0.99603 
3.2759 12.073 -1.0836 0.032391 -0.090321 -0.99539 
3.2936 12.23 -1.1122 0.1062 -0.17345 -0.9791 
3.3082 12.368 -1.1262 0.064797 -0.019208 -0.99771 
3.3197 12.487 -1.1248 -0.10324 0.13499 -0.98545 
3.326 12.575 -1.0981 -0.25724 0.49746 -0.82847 
3.3259 12.625 -1.0393 -0.31816 0.86656 -0.38451 
3.319 12.633 -0.94582 -0.42242 0.90418 -0.063412 
3.3106 12.634 -0.84528 -0.49828 0.63748 -0.58766 
3.3175 12.725 -0.82191 -0.20133 0.091721 -0.97522 
3.3324 12.864 -0.83974 -0.1988 0.0449 -0.97901 
3.3406 12.963 -0.82385 -0.25391 0.03613 -0.96655 
3.3525 13.084 -0.82711 -0.13595 -0.083876 -0.98716 
3.3692 13.233 -0.85557 -0.19055 -0.17339 -0.96624 
3.3908 13.411 -0.90924 -0.46164 -0.41118 -0.78601 
3.4656 13.901 -1.2387 -0.53775 -0.33182 -0.77506 
3.4795 14.032 -1.2549 -0.58301 -0.032162 -0.81183 
3.4932 14.161 -1.2702 -0.57874 0.092901 -0.8102 
3.5009 14.255 -1.2554 -0.56537 0.11971 -0.81611 
3.5101 14.358 -1.2485 -0.61341 -0.10797 -0.78235 
3.5408 14.586 -1.3542 -0.55109 -0.35033 -0.75734 
3.5815 14.871 -1.5133 -0.57159 -0.19866 -0.79613 
3.5899 14.968 -1.5043 -0.64089 0.55309 -0.53231 
3.584 14.983 -1.42 -0.38011 0.83677 -0.39412 
3.5818 15.018 -1.3547 -0.16835 0.83338 -0.52644 
3.5802 15.058 -1.2932 -0.25324 0.91341 -0.31868 
3.5757 15.081 -1.2165 -0.28198 0.91739 -0.28085 
3.5698 15.096 -1.1321 -0.18287 0.90664 -0.38021 
3.5686 15.139 -1.0724 -0.10194 0.93649 -0.33556 
3.5636 15.159 -0.99288 -0.14936 0.93064 -0.33407 
3.561 15.194 -0.92595 -0.043622 0.90598 -0.42108 
3.5558 15.214 -0.84483 -0.12578 0.86818 -0.48004 
3.5562 15.266 -0.79404 -0.23016 0.29 -0.92894 
3.5677 15.381 -0.80366 -0.32328 -0.12854 -0.93753 
3.5836 15.52 -0.837 -0.39538 -0.1659 -0.90341 
3.5987 15.655 -0.86639 -0.46808 -0.025726 -0.88331 
3.6053 15.741 -0.85028 -0.49137 0.38204 -0.78269 
3.606 15.795 -0.80249 -0.46555 0.8027 -0.37275 
3.5982 15.801 -0.70852 -0.3425 0.93939 0.015802 
3.5849 15.776 -0.58361 -0.47218 0.82745 0.30393 
3.5593 15.684 -0.39189 -0.55787 0.77457 0.29803 
3.1237 8.287 -2.9619 -0.16456 -0.2609 -0.95124 
3.1572 8.5581 -3.042 -0.2362 -0.15562 -0.95916 
3.1765 8.7343 -3.0609 -0.39287 0.06114 -0.91756 
3.1853 8.8404 -3.0342 -0.55416 0.35546 -0.7527 
3.1891 8.9128 -2.9853 -0.66525 0.43811 -0.60457 
3.193 8.9864 -2.9374 -0.65707 0.55575 -0.50931 
3.1925 9.0307 -2.8699 -0.58742 0.60786 -0.53428 
3.1943 9.0903 -2.8128 -0.55917 0.61106 -0.5603 
3.1949 9.1423 -2.7506 -0.56001 0.51053 -0.65249 
3.2 9.2235 -2.7083 -0.53786 0.51133 -0.67025 
3.2024 9.2878 -2.6547 -0.49714 0.58047 -0.6449 
3.2032 9.3408 -2.5934 -0.51804 0.60562 -0.60403 
3.2069 9.4134 -2.5458 -0.59325 0.74683 -0.3005 
3.1956 9.3873 -2.4294 -0.60358 0.78448 0.14242 
3.1841 9.361 -2.3124 -0.63097 0.77316 0.06402 
3.1752 9.3514 -2.2067 -0.5359 0.56436 -0.62794 
3.184 9.4579 -2.1827 -0.36532 0.24733 -0.89742 
3.195 9.5785 -2.1692 -0.44267 0.21497 -0.87053 
3.2034 9.6817 -2.1438 -0.5405 0.21379 -0.81373 
3.2118 9.7853 -2.119 -0.75339 0.017494 -0.65735 
3.229 9.9454 -2.1354 -0.84673 0.022832 -0.53153 
3.2639 10.219 -2.2353 -0.83787 0.010847 -0.54576 
3.2731 10.327 -2.2156 -0.87271 0.295 -0.38904 
3.2698 10.355 -2.1374 -0.87497 0.39715 -0.27695 
3.2626 10.358 -2.0408 -0.83331 0.54633 -0.084338 
3.2539 10.351 -1.937 -0.79313 0.54421 -0.27347 
3.255 10.407 -1.8794 -0.66224 0.60297 -0.44481 
3.259 10.481 -1.8357 -0.47066 0.64792 -0.5989 
3.2567 10.516 -1.7624 -0.60098 0.78136 -0.16822 
3.2477 10.509 -1.657 -0.55191 0.81561 0.17371 
3.2287 10.437 -1.5028 -0.58801 0.8046 -0.082774 
3.2292 10.491 -1.4425 -0.31372 -0.031842 -0.94898 
3.2531 10.692 -1.4961 -0.15818 -0.14835 -0.9762 
3.2672 10.831 -1.5024 -0.07126 0.016142 -0.99733 
3.279 10.955 -1.4977 -0.093682 0.18258 -0.97872 
3.2858 11.048 -1.4695 -0.14895 0.1231 -0.98115 
3.2965 11.165 -1.4608 -0.065265 0.068512 -0.99551 
3.3079 11.286 -1.4554 -0.091895 0.12885 -0.9874 
3.3168 11.392 -1.4383 -0.15257 0.28584 -0.94606 
3.3215 11.472 -1.4011 -0.20195 0.49136 -0.84722 
3.3249 11.542 -1.3573 -0.33874 0.7323 -0.59076 
3.3209 11.567 -1.2768 -0.30881 0.92175 -0.23454 
3.3159 11.586 -1.1917 -0.32532 0.94166 -0.086261 
3.3057 11.573 -1.0803 -0.33838 0.65788 -0.67283 
3.3165 11.691 -1.074 -0.1428 0.099641 -0.98472 
3.3278 11.811 -1.0706 -0.077843 -0.041865 -0.99609 
3.3419 11.948 -1.082 -0.020248 -0.02498 -0.99948 
3.3533 12.069 -1.0802 -0.023606 -0.056345 -0.99813 
3.3693 12.217 -1.1016 0.081442 -0.13152 -0.98796 
3.3842 12.359 -1.1183 0.021069 -0.11336 -0.99333 
3.398 12.493 -1.1298 -0.063568 0.07162 -0.9954 
3.4056 12.59 -1.1104 -0.18797 0.41079 -0.89214 
3.4064 12.645 -1.0562 -0.29026 0.84359 -0.45178 
3.4013 12.664 -0.97181 -0.28041 0.94009 -0.1939 
3.3957 12.68 -0.8847 -0.40895 0.77176 -0.48697 
3.3973 12.741 -0.83517 -0.24915 0.15326 -0.95626 
3.4115 12.877 -0.85048 -0.20152 0.022891 -0.97922 
3.4207 12.983 -0.84053 -0.21532 0.064736 -0.97439 
3.4307 13.094 -0.83544 -0.13107 -0.049478 -0.99014 
3.4457 13.234 -0.85599 -0.3414 -0.39895 -0.85105 
3.5272 13.773 -1.2258 -0.41857 -0.44348 -0.79254 
3.5547 13.988 -1.3145 -0.4752 -0.18404 -0.86041 
3.5674 14.113 -1.3261 -0.5288 0.040548 -0.84778 
3.5742 14.203 -1.3072 -0.51478 0.15034 -0.84404 
3.5835 14.307 -1.3016 -0.53155 0.012349 -0.84694 
3.5992 14.45 -1.3302 -0.5208 -0.32133 -0.79089 
3.651 14.805 -1.5511 -0.51669 -0.33397 -0.78835 
3.6651 14.937 -1.5728 -0.54468 0.065587 -0.83608 
3.6705 15.018 -1.5487 -0.50654 0.73496 -0.45084 
3.6618 15.014 -1.4486 -0.51774 0.82675 -0.22006 
3.6578 15.04 -1.3739 -0.47861 0.82402 -0.30318 
3.656 15.078 -1.3111 -0.26336 0.89859 -0.35097 
3.65 15.092 -1.2261 -0.21013 0.94044 -0.26723 
3.6465 15.12 -1.154 -0.2065 0.93294 -0.29492 
3.642 15.143 -1.0766 -0.18223 0.93986 -0.28889 
3.6354 15.154 -0.98758 -0.083857 0.96163 -0.26121 
3.6319 15.183 -0.91554 0.036149 0.88781 -0.45879 
3.6304 15.224 -0.85459 -0.075118 0.78202 -0.61871 
3.6319 15.283 -0.81012 -0.28609 0.082418 -0.95465 
3.6466 15.417 -0.83808 -0.39209 -0.20087 -0.89773 
3.6641 15.568 -0.8821 -0.44857 -0.16507 -0.87837 
3.6785 15.7 -0.9095 -0.48205 0.066339 -0.87363 
3.6821 15.77 -0.87771 -0.52414 0.52443 -0.67101 
